# .PCD v0.7 - Point Cloud Data file format
VERSION 0.7
FIELDS x y z
SIZE 4 4 4
TYPE F F F
COUNT 1 1 1
WIDTH 1274
HEIGHT 1
VIEWPOINT 0 0 0 1 0 0 0
POINTS 1274
DATA ascii
0.019119216 -0.06666667 0.02730507
0.016666666 -0.06666667 0.028867517
0.014087276 -0.06666667 0.030210262
0.011400673 -0.06666667 0.03132309
0.0086273029 -0.06666667 0.032197528
0.0057882746 -0.06666667 0.032826927
0.0029051937 -0.06666667 0.033206493
-1.4570464e-09 -0.06666667 0.033333335
-0.0029051923 -0.06666667 0.033206493
-0.0057882736 -0.06666667 0.032826927
-0.008627302 -0.06666667 0.032197528
-0.011400672 -0.06666667 0.03132309
-0.014087278 -0.06666667 0.03021026
-0.016666669 -0.06666667 0.028867515
-0.019119216 -0.06666667 0.027305068
-0.021426255 -0.06666667 0.025534816
-0.023570227 -0.06666667 0.023570227
-0.025534816 -0.06666667 0.021426255
-0.02730507 -0.06666667 0.019119216
-0.028867515 -0.06666667 0.016666669
-0.03021026 -0.06666667 0.014087278
-0.03132309 -0.06666667 0.011400674
-0.032197528 -0.06666667 0.0086273048
-0.032826927 -0.06666667 0.0057882769
-0.033206493 -0.06666667 0.0029051881
-0.033333335 -0.06666667 -2.9140927e-09
-0.033206493 -0.06666667 -0.0029051939
-0.032826927 -0.06666667 -0.0057882746
-0.032197528 -0.06666667 -0.0086273029
-0.03132309 -0.06666667 -0.011400673
-0.030210262 -0.06666667 -0.014087277
-0.028867515 -0.06666667 -0.016666666
-0.02730507 -0.06666667 -0.019119214
-0.025534818 -0.06666667 -0.021426253
-0.023570228 -0.06666667 -0.023570225
-0.021426251 -0.06666667 -0.02553482
-0.019119212 -0.06666667 -0.027305072
-0.016666664 -0.06666667 -0.028867517
-0.014087274 -0.06666667 -0.030210262
-0.01140067 -0.06666667 -0.03132309
-0.0086273002 -0.06666667 -0.032197531
-0.0057882713 -0.06666667 -0.032826927
-0.0029051907 -0.06666667 -0.033206493
3.9749604e-10 -0.06666667 -0.033333335
0.0029051914 -0.06666667 -0.033206493
0.0057882718 -0.06666667 -0.032826927
0.0086273011 -0.06666667 -0.032197528
0.011400671 -0.06666667 -0.03132309
0.014087274 -0.06666667 -0.030210262
0.016666664 -0.06666667 -0.028867517
0.019119212 -0.06666667 -0.027305072
0.021426251 -0.06666667 -0.025534818
0.023570223 -0.06666667 -0.02357023
0.025534812 -0.06666667 -0.02142626
0.027305067 -0.06666667 -0.01911922
0.028867513 -0.06666667 -0.016666673
0.030210258 -0.06666667 -0.014087282
0.031323086 -0.06666667 -0.011400679
0.032197531 -0.06666667 -0.0086272946
0.032826927 -0.06666667 -0.0057882662
0.033206493 -0.06666667 -0.0029051851
0.033333335 -0.06666667 5.8281855e-09
0.033333335 -0.06333334 0
0.033206493 -0.06333334 0.0029051914
0.032826927 -0.06333334 0.0057882727
0.032197528 -0.06333334 0.008627302
0.03132309 -0.06333334 0.011400672
0.03021026 -0.06333334 0.014087277
0.028867515 -0.06333334 0.016666668
0.02730507 -0.06333334 0.019119216
0.025534816 -0.06333334 0.021426253
0.023570227 -0.06333334 0.023570227
0.021426255 -0.06333334 0.025534816
0.019119216 -0.06333334 0.02730507
0.016666666 -0.06333334 0.028867517
0.014087276 -0.06333334 0.030210262
0.011400673 -0.06333334 0.03132309
0.0086273029 -0.06333334 0.032197528
0.0057882746 -0.06333334 0.032826927
0.0029051937 -0.06333334 0.033206493
-1.4570464e-09 -0.06333334 0.033333335
-0.0029051923 -0.06333334 0.033206493
-0.0057882736 -0.06333334 0.032826927
-0.008627302 -0.06333334 0.032197528
-0.011400672 -0.06333334 0.03132309
-0.014087278 -0.06333334 0.03021026
-0.016666669 -0.06333334 0.028867515
-0.019119216 -0.06333334 0.027305068
-0.021426255 -0.06333334 0.025534816
-0.023570227 -0.06333334 0.023570227
-0.025534816 -0.06333334 0.021426255
-0.02730507 -0.06333334 0.019119216
-0.028867515 -0.06333334 0.016666669
-0.03021026 -0.06333334 0.014087278
-0.03132309 -0.06333334 0.011400674
-0.032197528 -0.06333334 0.0086273048
-0.032826927 -0.06333334 0.0057882769
-0.033206493 -0.06333334 0.0029051881
-0.033333335 -0.06333334 -2.9140927e-09
-0.033206493 -0.06333334 -0.0029051939
-0.032826927 -0.06333334 -0.0057882746
-0.032197528 -0.06333334 -0.0086273029
-0.03132309 -0.06333334 -0.011400673
-0.030210262 -0.06333334 -0.014087277
-0.028867515 -0.06333334 -0.016666666
-0.02730507 -0.06333334 -0.019119214
-0.025534818 -0.06333334 -0.021426253
-0.023570228 -0.06333334 -0.023570225
-0.021426251 -0.06333334 -0.02553482
-0.019119212 -0.06333334 -0.027305072
-0.016666664 -0.06333334 -0.028867517
-0.014087274 -0.06333334 -0.030210262
-0.01140067 -0.06333334 -0.03132309
-0.0086273002 -0.06333334 -0.032197531
-0.0057882713 -0.06333334 -0.032826927
-0.0029051907 -0.06333334 -0.033206493
3.9749604e-10 -0.06333334 -0.033333335
0.0029051914 -0.06333334 -0.033206493
0.0057882718 -0.06333334 -0.032826927
0.0086273011 -0.06333334 -0.032197528
0.011400671 -0.06333334 -0.03132309
0.014087274 -0.06333334 -0.030210262
0.016666664 -0.06333334 -0.028867517
0.019119212 -0.06333334 -0.027305072
0.021426251 -0.06333334 -0.025534818
0.023570223 -0.06333334 -0.02357023
0.025534812 -0.06333334 -0.02142626
0.027305067 -0.06333334 -0.01911922
0.028867513 -0.06333334 -0.016666673
0.030210258 -0.06333334 -0.014087282
0.031323086 -0.06333334 -0.011400679
0.032197531 -0.06333334 -0.0086272946
0.032826927 -0.06333334 -0.0057882662
0.033206493 -0.06333334 -0.0029051851
0.033333335 -0.06333334 5.8281855e-09
0.033333335 -0.060000006 0
0.033206493 -0.060000006 0.0029051914
0.032826927 -0.060000006 0.0057882727
0.032197528 -0.060000006 0.008627302
0.03132309 -0.060000006 0.011400672
0.03021026 -0.060000006 0.014087277
0.028867515 -0.060000006 0.016666668
0.02730507 -0.060000006 0.019119216
0.025534816 -0.060000006 0.021426253
0.023570227 -0.060000006 0.023570227
0.021426255 -0.060000006 0.025534816
0.019119216 -0.060000006 0.02730507
0.016666666 -0.060000006 0.028867517
0.014087276 -0.060000006 0.030210262
0.011400673 -0.060000006 0.03132309
0.0086273029 -0.060000006 0.032197528
0.0057882746 -0.060000006 0.032826927
0.0029051937 -0.060000006 0.033206493
-1.4570464e-09 -0.060000006 0.033333335
-0.0029051923 -0.060000006 0.033206493
-0.0057882736 -0.060000006 0.032826927
-0.008627302 -0.060000006 0.032197528
-0.011400672 -0.060000006 0.03132309
-0.014087278 -0.060000006 0.03021026
-0.016666669 -0.060000006 0.028867515
-0.019119216 -0.060000006 0.027305068
-0.021426255 -0.060000006 0.025534816
-0.023570227 -0.060000006 0.023570227
-0.025534816 -0.060000006 0.021426255
-0.02730507 -0.060000006 0.019119216
-0.028867515 -0.060000006 0.016666669
-0.03021026 -0.060000006 0.014087278
-0.03132309 -0.060000006 0.011400674
-0.032197528 -0.060000006 0.0086273048
-0.032826927 -0.060000006 0.0057882769
-0.033206493 -0.060000006 0.0029051881
-0.033333335 -0.060000006 -2.9140927e-09
-0.033206493 -0.060000006 -0.0029051939
-0.032826927 -0.060000006 -0.0057882746
-0.032197528 -0.060000006 -0.0086273029
-0.03132309 -0.060000006 -0.011400673
-0.030210262 -0.060000006 -0.014087277
-0.028867515 -0.060000006 -0.016666666
-0.02730507 -0.060000006 -0.019119214
-0.025534818 -0.060000006 -0.021426253
-0.023570228 -0.060000006 -0.023570225
-0.021426251 -0.060000006 -0.02553482
-0.019119212 -0.060000006 -0.027305072
-0.016666664 -0.060000006 -0.028867517
-0.014087274 -0.060000006 -0.030210262
-0.01140067 -0.060000006 -0.03132309
-0.0086273002 -0.060000006 -0.032197531
-0.0057882713 -0.060000006 -0.032826927
-0.0029051907 -0.060000006 -0.033206493
3.9749604e-10 -0.060000006 -0.033333335
0.0029051914 -0.060000006 -0.033206493
0.0057882718 -0.060000006 -0.032826927
0.0086273011 -0.060000006 -0.032197528
0.011400671 -0.060000006 -0.03132309
0.014087274 -0.060000006 -0.030210262
0.016666664 -0.060000006 -0.028867517
0.019119212 -0.060000006 -0.027305072
0.021426251 -0.060000006 -0.025534818
0.023570223 -0.060000006 -0.02357023
0.025534812 -0.060000006 -0.02142626
0.027305067 -0.060000006 -0.01911922
0.028867513 -0.060000006 -0.016666673
0.030210258 -0.060000006 -0.014087282
0.031323086 -0.060000006 -0.011400679
0.032197531 -0.060000006 -0.0086272946
0.032826927 -0.060000006 -0.0057882662
0.033206493 -0.060000006 -0.0029051851
0.033333335 -0.060000006 5.8281855e-09
0.033333335 -0.056666672 0
0.033206493 -0.056666672 0.0029051914
0.032826927 -0.056666672 0.0057882727
0.032197528 -0.056666672 0.008627302
0.03132309 -0.056666672 0.011400672
0.03021026 -0.056666672 0.014087277
0.028867515 -0.056666672 0.016666668
0.02730507 -0.056666672 0.019119216
0.025534816 -0.056666672 0.021426253
0.023570227 -0.056666672 0.023570227
0.021426255 -0.056666672 0.025534816
0.019119216 -0.056666672 0.02730507
0.016666666 -0.056666672 0.028867517
0.014087276 -0.056666672 0.030210262
0.011400673 -0.056666672 0.03132309
0.0086273029 -0.056666672 0.032197528
0.0057882746 -0.056666672 0.032826927
0.0029051937 -0.056666672 0.033206493
-1.4570464e-09 -0.056666672 0.033333335
-0.0029051923 -0.056666672 0.033206493
-0.0057882736 -0.056666672 0.032826927
-0.008627302 -0.056666672 0.032197528
-0.011400672 -0.056666672 0.03132309
-0.014087278 -0.056666672 0.03021026
-0.016666669 -0.056666672 0.028867515
-0.019119216 -0.056666672 0.027305068
-0.021426255 -0.056666672 0.025534816
-0.023570227 -0.056666672 0.023570227
-0.025534816 -0.056666672 0.021426255
-0.02730507 -0.056666672 0.019119216
-0.028867515 -0.056666672 0.016666669
-0.03021026 -0.056666672 0.014087278
-0.03132309 -0.056666672 0.011400674
-0.032197528 -0.056666672 0.0086273048
-0.032826927 -0.056666672 0.0057882769
-0.033206493 -0.056666672 0.0029051881
-0.033333335 -0.056666672 -2.9140927e-09
-0.033206493 -0.056666672 -0.0029051939
-0.032826927 -0.056666672 -0.0057882746
-0.032197528 -0.056666672 -0.0086273029
-0.03132309 -0.056666672 -0.011400673
-0.030210262 -0.056666672 -0.014087277
-0.028867515 -0.056666672 -0.016666666
-0.02730507 -0.056666672 -0.019119214
-0.025534818 -0.056666672 -0.021426253
-0.023570228 -0.056666672 -0.023570225
-0.021426251 -0.056666672 -0.02553482
-0.019119212 -0.056666672 -0.027305072
-0.016666664 -0.056666672 -0.028867517
-0.014087274 -0.056666672 -0.030210262
-0.01140067 -0.056666672 -0.03132309
-0.0086273002 -0.056666672 -0.032197531
-0.0057882713 -0.056666672 -0.032826927
-0.0029051907 -0.056666672 -0.033206493
3.9749604e-10 -0.056666672 -0.033333335
0.0029051914 -0.056666672 -0.033206493
0.0057882718 -0.056666672 -0.032826927
0.0086273011 -0.056666672 -0.032197528
0.011400671 -0.056666672 -0.03132309
0.014087274 -0.056666672 -0.030210262
0.016666664 -0.056666672 -0.028867517
0.019119212 -0.056666672 -0.027305072
0.021426251 -0.056666672 -0.025534818
0.023570223 -0.056666672 -0.02357023
0.025534812 -0.056666672 -0.02142626
0.027305067 -0.056666672 -0.01911922
0.028867513 -0.056666672 -0.016666673
0.030210258 -0.056666672 -0.014087282
0.031323086 -0.056666672 -0.011400679
0.032197531 -0.056666672 -0.0086272946
0.032826927 -0.056666672 -0.0057882662
0.033206493 -0.056666672 -0.0029051851
0.033333335 -0.056666672 5.8281855e-09
0.033333335 -0.053333338 0
0.033206493 -0.053333338 0.0029051914
0.032826927 -0.053333338 0.0057882727
0.032197528 -0.053333338 0.008627302
0.03132309 -0.053333338 0.011400672
0.03021026 -0.053333338 0.014087277
0.028867515 -0.053333338 0.016666668
0.02730507 -0.053333338 0.019119216
0.025534816 -0.053333338 0.021426253
0.023570227 -0.053333338 0.023570227
0.021426255 -0.053333338 0.025534816
0.019119216 -0.053333338 0.02730507
0.016666666 -0.053333338 0.028867517
0.014087276 -0.053333338 0.030210262
0.011400673 -0.053333338 0.03132309
0.0086273029 -0.053333338 0.032197528
0.0057882746 -0.053333338 0.032826927
0.0029051937 -0.053333338 0.033206493
-1.4570464e-09 -0.053333338 0.033333335
-0.0029051923 -0.053333338 0.033206493
-0.0057882736 -0.053333338 0.032826927
-0.008627302 -0.053333338 0.032197528
-0.011400672 -0.053333338 0.03132309
-0.014087278 -0.053333338 0.03021026
-0.016666669 -0.053333338 0.028867515
-0.019119216 -0.053333338 0.027305068
-0.021426255 -0.053333338 0.025534816
-0.023570227 -0.053333338 0.023570227
-0.025534816 -0.053333338 0.021426255
-0.02730507 -0.053333338 0.019119216
-0.028867515 -0.053333338 0.016666669
-0.03021026 -0.053333338 0.014087278
-0.03132309 -0.053333338 0.011400674
-0.032197528 -0.053333338 0.0086273048
-0.032826927 -0.053333338 0.0057882769
-0.033206493 -0.053333338 0.0029051881
-0.033333335 -0.053333338 -2.9140927e-09
-0.033206493 -0.053333338 -0.0029051939
-0.032826927 -0.053333338 -0.0057882746
-0.032197528 -0.053333338 -0.0086273029
-0.03132309 -0.053333338 -0.011400673
-0.030210262 -0.053333338 -0.014087277
-0.028867515 -0.053333338 -0.016666666
-0.02730507 -0.053333338 -0.019119214
-0.025534818 -0.053333338 -0.021426253
-0.023570228 -0.053333338 -0.023570225
-0.021426251 -0.053333338 -0.02553482
-0.019119212 -0.053333338 -0.027305072
-0.016666664 -0.053333338 -0.028867517
-0.014087274 -0.053333338 -0.030210262
-0.01140067 -0.053333338 -0.03132309
-0.0086273002 -0.053333338 -0.032197531
-0.0057882713 -0.053333338 -0.032826927
-0.0029051907 -0.053333338 -0.033206493
3.9749604e-10 -0.053333338 -0.033333335
0.0029051914 -0.053333338 -0.033206493
0.0057882718 -0.053333338 -0.032826927
0.0086273011 -0.053333338 -0.032197528
0.011400671 -0.053333338 -0.03132309
0.014087274 -0.053333338 -0.030210262
0.016666664 -0.053333338 -0.028867517
0.019119212 -0.053333338 -0.027305072
0.021426251 -0.053333338 -0.025534818
0.023570223 -0.053333338 -0.02357023
0.025534812 -0.053333338 -0.02142626
0.027305067 -0.053333338 -0.01911922
0.028867513 -0.053333338 -0.016666673
0.030210258 -0.053333338 -0.014087282
0.031323086 -0.053333338 -0.011400679
0.032197531 -0.053333338 -0.0086272946
0.032826927 -0.053333338 -0.0057882662
0.033206493 -0.053333338 -0.0029051851
0.033333335 -0.053333338 5.8281855e-09
0.033333335 -0.050000004 0
0.033206493 -0.050000004 0.0029051914
0.032826927 -0.050000004 0.0057882727
0.032197528 -0.050000004 0.008627302
0.03132309 -0.050000004 0.011400672
0.03021026 -0.050000004 0.014087277
0.028867515 -0.050000004 0.016666668
0.02730507 -0.050000004 0.019119216
0.025534816 -0.050000004 0.021426253
0.023570227 -0.050000004 0.023570227
0.021426255 -0.050000004 0.025534816
0.019119216 -0.050000004 0.02730507
0.016666666 -0.050000004 0.028867517
0.014087276 -0.050000004 0.030210262
0.011400673 -0.050000004 0.03132309
0.0086273029 -0.050000004 0.032197528
0.0057882746 -0.050000004 0.032826927
0.0029051937 -0.050000004 0.033206493
-1.4570464e-09 -0.050000004 0.033333335
-0.0029051923 -0.050000004 0.033206493
-0.0057882736 -0.050000004 0.032826927
-0.008627302 -0.050000004 0.032197528
-0.011400672 -0.050000004 0.03132309
-0.014087278 -0.050000004 0.03021026
-0.016666669 -0.050000004 0.028867515
-0.019119216 -0.050000004 0.027305068
-0.021426255 -0.050000004 0.025534816
-0.023570227 -0.050000004 0.023570227
-0.025534816 -0.050000004 0.021426255
-0.02730507 -0.050000004 0.019119216
-0.028867515 -0.050000004 0.016666669
-0.03021026 -0.050000004 0.014087278
-0.03132309 -0.050000004 0.011400674
-0.032197528 -0.050000004 0.0086273048
-0.032826927 -0.050000004 0.0057882769
-0.033206493 -0.050000004 0.0029051881
-0.033333335 -0.050000004 -2.9140927e-09
-0.033206493 -0.050000004 -0.0029051939
-0.032826927 -0.050000004 -0.0057882746
-0.032197528 -0.050000004 -0.0086273029
-0.03132309 -0.050000004 -0.011400673
-0.030210262 -0.050000004 -0.014087277
-0.028867515 -0.050000004 -0.016666666
-0.02730507 -0.050000004 -0.019119214
-0.025534818 -0.050000004 -0.021426253
-0.023570228 -0.050000004 -0.023570225
-0.021426251 -0.050000004 -0.02553482
-0.019119212 -0.050000004 -0.027305072
-0.016666664 -0.050000004 -0.028867517
-0.014087274 -0.050000004 -0.030210262
-0.01140067 -0.050000004 -0.03132309
-0.0086273002 -0.050000004 -0.032197531
-0.0057882713 -0.050000004 -0.032826927
-0.0029051907 -0.050000004 -0.033206493
3.9749604e-10 -0.050000004 -0.033333335
0.0029051914 -0.050000004 -0.033206493
0.0057882718 -0.050000004 -0.032826927
0.0086273011 -0.050000004 -0.032197528
0.011400671 -0.050000004 -0.03132309
0.014087274 -0.050000004 -0.030210262
0.016666664 -0.050000004 -0.028867517
0.019119212 -0.050000004 -0.027305072
0.021426251 -0.050000004 -0.025534818
0.023570223 -0.050000004 -0.02357023
0.025534812 -0.050000004 -0.02142626
0.027305067 -0.050000004 -0.01911922
0.028867513 -0.050000004 -0.016666673
0.030210258 -0.050000004 -0.014087282
0.031323086 -0.050000004 -0.011400679
0.032197531 -0.050000004 -0.0086272946
0.032826927 -0.050000004 -0.0057882662
0.033206493 -0.050000004 -0.0029051851
0.033333335 -0.050000004 5.8281855e-09
0.033333335 -0.046666671 0
0.033206493 -0.046666671 0.0029051914
0.032826927 -0.046666671 0.0057882727
0.032197528 -0.046666671 0.008627302
0.03132309 -0.046666671 0.011400672
0.03021026 -0.046666671 0.014087277
0.028867515 -0.046666671 0.016666668
0.02730507 -0.046666671 0.019119216
0.025534816 -0.046666671 0.021426253
0.023570227 -0.046666671 0.023570227
0.021426255 -0.046666671 0.025534816
0.019119216 -0.046666671 0.02730507
0.016666666 -0.046666671 0.028867517
0.014087276 -0.046666671 0.030210262
0.011400673 -0.046666671 0.03132309
0.0086273029 -0.046666671 0.032197528
0.0057882746 -0.046666671 0.032826927
0.0029051937 -0.046666671 0.033206493
-1.4570464e-09 -0.046666671 0.033333335
-0.0029051923 -0.046666671 0.033206493
-0.0057882736 -0.046666671 0.032826927
-0.008627302 -0.046666671 0.032197528
-0.011400672 -0.046666671 0.03132309
-0.014087278 -0.046666671 0.03021026
-0.016666669 -0.046666671 0.028867515
-0.019119216 -0.046666671 0.027305068
-0.021426255 -0.046666671 0.025534816
-0.023570227 -0.046666671 0.023570227
-0.025534816 -0.046666671 0.021426255
-0.02730507 -0.046666671 0.019119216
-0.028867515 -0.046666671 0.016666669
-0.03021026 -0.046666671 0.014087278
-0.03132309 -0.046666671 0.011400674
-0.032197528 -0.046666671 0.0086273048
-0.032826927 -0.046666671 0.0057882769
-0.033206493 -0.046666671 0.0029051881
-0.033333335 -0.046666671 -2.9140927e-09
-0.033206493 -0.046666671 -0.0029051939
-0.032826927 -0.046666671 -0.0057882746
-0.032197528 -0.046666671 -0.0086273029
-0.03132309 -0.046666671 -0.011400673
-0.030210262 -0.046666671 -0.014087277
-0.028867515 -0.046666671 -0.016666666
-0.02730507 -0.046666671 -0.019119214
-0.025534818 -0.046666671 -0.021426253
-0.023570228 -0.046666671 -0.023570225
-0.021426251 -0.046666671 -0.02553482
-0.019119212 -0.046666671 -0.027305072
-0.016666664 -0.046666671 -0.028867517
-0.014087274 -0.046666671 -0.030210262
-0.01140067 -0.046666671 -0.03132309
-0.0086273002 -0.046666671 -0.032197531
-0.0057882713 -0.046666671 -0.032826927
-0.0029051907 -0.046666671 -0.033206493
3.9749604e-10 -0.046666671 -0.033333335
0.0029051914 -0.046666671 -0.033206493
0.0057882718 -0.046666671 -0.032826927
0.0086273011 -0.046666671 -0.032197528
0.011400671 -0.046666671 -0.03132309
0.014087274 -0.046666671 -0.030210262
0.016666664 -0.046666671 -0.028867517
0.019119212 -0.046666671 -0.027305072
0.021426251 -0.046666671 -0.025534818
0.023570223 -0.046666671 -0.02357023
0.025534812 -0.046666671 -0.02142626
0.027305067 -0.046666671 -0.01911922
0.028867513 -0.046666671 -0.016666673
0.030210258 -0.046666671 -0.014087282
0.031323086 -0.046666671 -0.011400679
0.032197531 -0.046666671 -0.0086272946
0.032826927 -0.046666671 -0.0057882662
0.033206493 -0.046666671 -0.0029051851
0.033333335 -0.046666671 5.8281855e-09
0.033333335 -0.043333337 0
0.033206493 -0.043333337 0.0029051914
0.032826927 -0.043333337 0.0057882727
0.032197528 -0.043333337 0.008627302
0.03132309 -0.043333337 0.011400672
0.03021026 -0.043333337 0.014087277
0.028867515 -0.043333337 0.016666668
0.02730507 -0.043333337 0.019119216
0.025534816 -0.043333337 0.021426253
0.023570227 -0.043333337 0.023570227
0.021426255 -0.043333337 0.025534816
0.019119216 -0.043333337 0.02730507
0.016666666 -0.043333337 0.028867517
0.014087276 -0.043333337 0.030210262
0.011400673 -0.043333337 0.03132309
0.0086273029 -0.043333337 0.032197528
0.0057882746 -0.043333337 0.032826927
0.0029051937 -0.043333337 0.033206493
-1.4570464e-09 -0.043333337 0.033333335
-0.0029051923 -0.043333337 0.033206493
-0.0057882736 -0.043333337 0.032826927
-0.008627302 -0.043333337 0.032197528
-0.011400672 -0.043333337 0.03132309
-0.014087278 -0.043333337 0.03021026
-0.016666669 -0.043333337 0.028867515
-0.019119216 -0.043333337 0.027305068
-0.021426255 -0.043333337 0.025534816
-0.023570227 -0.043333337 0.023570227
-0.025534816 -0.043333337 0.021426255
-0.02730507 -0.043333337 0.019119216
-0.028867515 -0.043333337 0.016666669
-0.03021026 -0.043333337 0.014087278
-0.03132309 -0.043333337 0.011400674
-0.032197528 -0.043333337 0.0086273048
-0.032826927 -0.043333337 0.0057882769
-0.033206493 -0.043333337 0.0029051881
-0.033333335 -0.043333337 -2.9140927e-09
-0.033206493 -0.043333337 -0.0029051939
-0.032826927 -0.043333337 -0.0057882746
-0.032197528 -0.043333337 -0.0086273029
-0.03132309 -0.043333337 -0.011400673
-0.030210262 -0.043333337 -0.014087277
-0.028867515 -0.043333337 -0.016666666
-0.02730507 -0.043333337 -0.019119214
-0.025534818 -0.043333337 -0.021426253
-0.023570228 -0.043333337 -0.023570225
-0.021426251 -0.043333337 -0.02553482
-0.019119212 -0.043333337 -0.027305072
-0.016666664 -0.043333337 -0.028867517
-0.014087274 -0.043333337 -0.030210262
-0.01140067 -0.043333337 -0.03132309
-0.0086273002 -0.043333337 -0.032197531
-0.0057882713 -0.043333337 -0.032826927
-0.0029051907 -0.043333337 -0.033206493
3.9749604e-10 -0.043333337 -0.033333335
0.0029051914 -0.043333337 -0.033206493
0.0057882718 -0.043333337 -0.032826927
0.0086273011 -0.043333337 -0.032197528
0.011400671 -0.043333337 -0.03132309
0.014087274 -0.043333337 -0.030210262
0.016666664 -0.043333337 -0.028867517
0.019119212 -0.043333337 -0.027305072
0.021426251 -0.043333337 -0.025534818
0.023570223 -0.043333337 -0.02357023
0.025534812 -0.043333337 -0.02142626
0.027305067 -0.043333337 -0.01911922
0.028867513 -0.043333337 -0.016666673
0.030210258 -0.043333337 -0.014087282
0.031323086 -0.043333337 -0.011400679
0.032197531 -0.043333337 -0.0086272946
0.032826927 -0.043333337 -0.0057882662
0.033206493 -0.043333337 -0.0029051851
0.033333335 -0.043333337 5.8281855e-09
0.033333335 -0.040000003 0
0.033206493 -0.040000003 0.0029051914
0.032826927 -0.040000003 0.0057882727
0.032197528 -0.040000003 0.008627302
0.03132309 -0.040000003 0.011400672
0.03021026 -0.040000003 0.014087277
0.028867515 -0.040000003 0.016666668
0.02730507 -0.040000003 0.019119216
0.025534816 -0.040000003 0.021426253
0.023570227 -0.040000003 0.023570227
0.021426255 -0.040000003 0.025534816
0.019119216 -0.040000003 0.02730507
0.016666666 -0.040000003 0.028867517
0.014087276 -0.040000003 0.030210262
0.011400673 -0.040000003 0.03132309
0.0086273029 -0.040000003 0.032197528
0.0057882746 -0.040000003 0.032826927
0.0029051937 -0.040000003 0.033206493
-1.4570464e-09 -0.040000003 0.033333335
-0.0029051923 -0.040000003 0.033206493
-0.0057882736 -0.040000003 0.032826927
-0.008627302 -0.040000003 0.032197528
-0.011400672 -0.040000003 0.03132309
-0.014087278 -0.040000003 0.03021026
-0.016666669 -0.040000003 0.028867515
-0.019119216 -0.040000003 0.027305068
-0.021426255 -0.040000003 0.025534816
-0.023570227 -0.040000003 0.023570227
-0.025534816 -0.040000003 0.021426255
-0.02730507 -0.040000003 0.019119216
-0.028867515 -0.040000003 0.016666669
-0.03021026 -0.040000003 0.014087278
-0.03132309 -0.040000003 0.011400674
-0.032197528 -0.040000003 0.0086273048
-0.032826927 -0.040000003 0.0057882769
-0.033206493 -0.040000003 0.0029051881
-0.033333335 -0.040000003 -2.9140927e-09
-0.033206493 -0.040000003 -0.0029051939
-0.032826927 -0.040000003 -0.0057882746
-0.032197528 -0.040000003 -0.0086273029
-0.03132309 -0.040000003 -0.011400673
-0.030210262 -0.040000003 -0.014087277
-0.028867515 -0.040000003 -0.016666666
-0.02730507 -0.040000003 -0.019119214
-0.025534818 -0.040000003 -0.021426253
-0.023570228 -0.040000003 -0.023570225
-0.021426251 -0.040000003 -0.02553482
-0.019119212 -0.040000003 -0.027305072
-0.016666664 -0.040000003 -0.028867517
-0.014087274 -0.040000003 -0.030210262
-0.01140067 -0.040000003 -0.03132309
-0.0086273002 -0.040000003 -0.032197531
-0.0057882713 -0.040000003 -0.032826927
-0.0029051907 -0.040000003 -0.033206493
3.9749604e-10 -0.040000003 -0.033333335
0.0029051914 -0.040000003 -0.033206493
0.0057882718 -0.040000003 -0.032826927
0.0086273011 -0.040000003 -0.032197528
0.011400671 -0.040000003 -0.03132309
0.014087274 -0.040000003 -0.030210262
0.016666664 -0.040000003 -0.028867517
0.019119212 -0.040000003 -0.027305072
0.021426251 -0.040000003 -0.025534818
0.023570223 -0.040000003 -0.02357023
0.025534812 -0.040000003 -0.02142626
0.027305067 -0.040000003 -0.01911922
0.028867513 -0.040000003 -0.016666673
0.030210258 -0.040000003 -0.014087282
0.031323086 -0.040000003 -0.011400679
0.032197531 -0.040000003 -0.0086272946
0.032826927 -0.040000003 -0.0057882662
0.033206493 -0.040000003 -0.0029051851
0.033333335 -0.040000003 5.8281855e-09
0.033333335 -0.036666669 0
0.033206493 -0.036666669 0.0029051914
0.032826927 -0.036666669 0.0057882727
0.032197528 -0.036666669 0.008627302
0.03132309 -0.036666669 0.011400672
0.03021026 -0.036666669 0.014087277
0.028867515 -0.036666669 0.016666668
0.02730507 -0.036666669 0.019119216
0.025534816 -0.036666669 0.021426253
0.023570227 -0.036666669 0.023570227
0.021426255 -0.036666669 0.025534816
0.019119216 -0.036666669 0.02730507
0.016666666 -0.036666669 0.028867517
0.014087276 -0.036666669 0.030210262
0.011400673 -0.036666669 0.03132309
0.0086273029 -0.036666669 0.032197528
0.0057882746 -0.036666669 0.032826927
0.0029051937 -0.036666669 0.033206493
-1.4570464e-09 -0.036666669 0.033333335
-0.0029051923 -0.036666669 0.033206493
-0.0057882736 -0.036666669 0.032826927
-0.008627302 -0.036666669 0.032197528
-0.011400672 -0.036666669 0.03132309
-0.014087278 -0.036666669 0.03021026
-0.016666669 -0.036666669 0.028867515
-0.019119216 -0.036666669 0.027305068
-0.021426255 -0.036666669 0.025534816
-0.023570227 -0.036666669 0.023570227
-0.025534816 -0.036666669 0.021426255
-0.02730507 -0.036666669 0.019119216
-0.028867515 -0.036666669 0.016666669
-0.03021026 -0.036666669 0.014087278
-0.03132309 -0.036666669 0.011400674
-0.032197528 -0.036666669 0.0086273048
-0.032826927 -0.036666669 0.0057882769
-0.033206493 -0.036666669 0.0029051881
-0.033333335 -0.036666669 -2.9140927e-09
-0.033206493 -0.036666669 -0.0029051939
-0.032826927 -0.036666669 -0.0057882746
-0.032197528 -0.036666669 -0.0086273029
-0.03132309 -0.036666669 -0.011400673
-0.030210262 -0.036666669 -0.014087277
-0.028867515 -0.036666669 -0.016666666
-0.02730507 -0.036666669 -0.019119214
-0.025534818 -0.036666669 -0.021426253
-0.023570228 -0.036666669 -0.023570225
-0.021426251 -0.036666669 -0.02553482
-0.019119212 -0.036666669 -0.027305072
-0.016666664 -0.036666669 -0.028867517
-0.014087274 -0.036666669 -0.030210262
-0.01140067 -0.036666669 -0.03132309
-0.0086273002 -0.036666669 -0.032197531
-0.0057882713 -0.036666669 -0.032826927
-0.0029051907 -0.036666669 -0.033206493
3.9749604e-10 -0.036666669 -0.033333335
0.0029051914 -0.036666669 -0.033206493
0.0057882718 -0.036666669 -0.032826927
0.0086273011 -0.036666669 -0.032197528
0.011400671 -0.036666669 -0.03132309
0.014087274 -0.036666669 -0.030210262
0.016666664 -0.036666669 -0.028867517
0.019119212 -0.036666669 -0.027305072
0.021426251 -0.036666669 -0.025534818
0.023570223 -0.036666669 -0.02357023
0.025534812 -0.036666669 -0.02142626
0.027305067 -0.036666669 -0.01911922
0.028867513 -0.036666669 -0.016666673
0.030210258 -0.036666669 -0.014087282
0.031323086 -0.036666669 -0.011400679
0.032197531 -0.036666669 -0.0086272946
0.032826927 -0.036666669 -0.0057882662
0.033206493 -0.036666669 -0.0029051851
0.033333335 -0.036666669 5.8281855e-09
0.033333335 -0.033333335 0
0.033206493 -0.033333335 0.0029051914
0.032826927 -0.033333335 0.0057882727
0.032197528 -0.033333335 0.008627302
0.03132309 -0.033333335 0.011400672
0.03021026 -0.033333335 0.014087277
0.028867515 -0.033333335 0.016666668
0.02730507 -0.033333335 0.019119216
0.025534816 -0.033333335 0.021426253
0.023570227 -0.033333335 0.023570227
0.021426255 -0.033333335 0.025534816
0.019119216 -0.033333335 0.02730507
0.016666666 -0.033333335 0.028867517
0.014087276 -0.033333335 0.030210262
0.011400673 -0.033333335 0.03132309
0.0086273029 -0.033333335 0.032197528
0.0057882746 -0.033333335 0.032826927
0.0029051937 -0.033333335 0.033206493
-1.4570464e-09 -0.033333335 0.033333335
-0.0029051923 -0.033333335 0.033206493
-0.0057882736 -0.033333335 0.032826927
-0.008627302 -0.033333335 0.032197528
-0.011400672 -0.033333335 0.03132309
-0.014087278 -0.033333335 0.03021026
-0.016666669 -0.033333335 0.028867515
-0.019119216 -0.033333335 0.027305068
-0.021426255 -0.033333335 0.025534816
-0.023570227 -0.033333335 0.023570227
-0.025534816 -0.033333335 0.021426255
-0.02730507 -0.033333335 0.019119216
-0.028867515 -0.033333335 0.016666669
-0.03021026 -0.033333335 0.014087278
-0.03132309 -0.033333335 0.011400674
-0.032197528 -0.033333335 0.0086273048
-0.032826927 -0.033333335 0.0057882769
-0.033206493 -0.033333335 0.0029051881
-0.033333335 -0.033333335 -2.9140927e-09
-0.033206493 -0.033333335 -0.0029051939
-0.032826927 -0.033333335 -0.0057882746
-0.032197528 -0.033333335 -0.0086273029
-0.03132309 -0.033333335 -0.011400673
-0.030210262 -0.033333335 -0.014087277
-0.028867515 -0.033333335 -0.016666666
-0.02730507 -0.033333335 -0.019119214
-0.025534818 -0.033333335 -0.021426253
-0.023570228 -0.033333335 -0.023570225
-0.021426251 -0.033333335 -0.02553482
-0.019119212 -0.033333335 -0.027305072
-0.016666664 -0.033333335 -0.028867517
-0.014087274 -0.033333335 -0.030210262
-0.01140067 -0.033333335 -0.03132309
-0.0086273002 -0.033333335 -0.032197531
-0.0057882713 -0.033333335 -0.032826927
-0.0029051907 -0.033333335 -0.033206493
3.9749604e-10 -0.033333335 -0.033333335
0.0029051914 -0.033333335 -0.033206493
0.0057882718 -0.033333335 -0.032826927
0.0086273011 -0.033333335 -0.032197528
0.011400671 -0.033333335 -0.03132309
0.014087274 -0.033333335 -0.030210262
0.016666664 -0.033333335 -0.028867517
0.019119212 -0.033333335 -0.027305072
0.021426251 -0.033333335 -0.025534818
0.023570223 -0.033333335 -0.02357023
0.025534812 -0.033333335 -0.02142626
0.027305067 -0.033333335 -0.01911922
0.028867513 -0.033333335 -0.016666673
0.030210258 -0.033333335 -0.014087282
0.031323086 -0.033333335 -0.011400679
0.032197531 -0.033333335 -0.0086272946
0.032826927 -0.033333335 -0.0057882662
0.033206493 -0.033333335 -0.0029051851
0.033333335 -0.033333335 5.8281855e-09
0.033333335 -0.030000001 0
0.033206493 -0.030000001 0.0029051914
0.032826927 -0.030000001 0.0057882727
0.032197528 -0.030000001 0.008627302
0.03132309 -0.030000001 0.011400672
0.03021026 -0.030000001 0.014087277
0.028867515 -0.030000001 0.016666668
0.02730507 -0.030000001 0.019119216
0.025534816 -0.030000001 0.021426253
0.023570227 -0.030000001 0.023570227
0.021426255 -0.030000001 0.025534816
0.019119216 -0.030000001 0.02730507
0.016666666 -0.030000001 0.028867517
0.014087276 -0.030000001 0.030210262
0.011400673 -0.030000001 0.03132309
0.0086273029 -0.030000001 0.032197528
0.0057882746 -0.030000001 0.032826927
0.0029051937 -0.030000001 0.033206493
-1.4570464e-09 -0.030000001 0.033333335
-0.0029051923 -0.030000001 0.033206493
-0.0057882736 -0.030000001 0.032826927
-0.008627302 -0.030000001 0.032197528
-0.011400672 -0.030000001 0.03132309
-0.014087278 -0.030000001 0.03021026
-0.016666669 -0.030000001 0.028867515
-0.019119216 -0.030000001 0.027305068
-0.021426255 -0.030000001 0.025534816
-0.023570227 -0.030000001 0.023570227
-0.025534816 -0.030000001 0.021426255
-0.02730507 -0.030000001 0.019119216
-0.028867515 -0.030000001 0.016666669
-0.03021026 -0.030000001 0.014087278
-0.03132309 -0.030000001 0.011400674
-0.032197528 -0.030000001 0.0086273048
-0.032826927 -0.030000001 0.0057882769
-0.033206493 -0.030000001 0.0029051881
-0.033333335 -0.030000001 -2.9140927e-09
-0.033206493 -0.030000001 -0.0029051939
-0.032826927 -0.030000001 -0.0057882746
-0.032197528 -0.030000001 -0.0086273029
-0.03132309 -0.030000001 -0.011400673
-0.030210262 -0.030000001 -0.014087277
-0.028867515 -0.030000001 -0.016666666
-0.02730507 -0.030000001 -0.019119214
-0.025534818 -0.030000001 -0.021426253
-0.023570228 -0.030000001 -0.023570225
-0.021426251 -0.030000001 -0.02553482
-0.019119212 -0.030000001 -0.027305072
-0.016666664 -0.030000001 -0.028867517
-0.014087274 -0.030000001 -0.030210262
-0.01140067 -0.030000001 -0.03132309
-0.0086273002 -0.030000001 -0.032197531
-0.0057882713 -0.030000001 -0.032826927
-0.0029051907 -0.030000001 -0.033206493
3.9749604e-10 -0.030000001 -0.033333335
0.0029051914 -0.030000001 -0.033206493
0.0057882718 -0.030000001 -0.032826927
0.0086273011 -0.030000001 -0.032197528
0.011400671 -0.030000001 -0.03132309
0.014087274 -0.030000001 -0.030210262
0.016666664 -0.030000001 -0.028867517
0.019119212 -0.030000001 -0.027305072
0.021426251 -0.030000001 -0.025534818
0.023570223 -0.030000001 -0.02357023
0.025534812 -0.030000001 -0.02142626
0.027305067 -0.030000001 -0.01911922
0.028867513 -0.030000001 -0.016666673
0.030210258 -0.030000001 -0.014087282
0.031323086 -0.030000001 -0.011400679
0.032197531 -0.030000001 -0.0086272946
0.032826927 -0.030000001 -0.0057882662
0.033206493 -0.030000001 -0.0029051851
0.033333335 -0.030000001 5.8281855e-09
0.033333335 -0.026666667 0
0.033206493 -0.026666667 0.0029051914
0.032826927 -0.026666667 0.0057882727
0.032197528 -0.026666667 0.008627302
0.03132309 -0.026666667 0.011400672
0.03021026 -0.026666667 0.014087277
0.028867515 -0.026666667 0.016666668
0.02730507 -0.026666667 0.019119216
0.025534816 -0.026666667 0.021426253
0.023570227 -0.026666667 0.023570227
0.021426255 -0.026666667 0.025534816
0.019119216 -0.026666667 0.02730507
0.016666666 -0.026666667 0.028867517
0.014087276 -0.026666667 0.030210262
0.011400673 -0.026666667 0.03132309
0.0086273029 -0.026666667 0.032197528
0.0057882746 -0.026666667 0.032826927
0.0029051937 -0.026666667 0.033206493
-1.4570464e-09 -0.026666667 0.033333335
-0.0029051923 -0.026666667 0.033206493
-0.0057882736 -0.026666667 0.032826927
-0.008627302 -0.026666667 0.032197528
-0.011400672 -0.026666667 0.03132309
-0.014087278 -0.026666667 0.03021026
-0.016666669 -0.026666667 0.028867515
-0.019119216 -0.026666667 0.027305068
-0.021426255 -0.026666667 0.025534816
-0.023570227 -0.026666667 0.023570227
-0.025534816 -0.026666667 0.021426255
-0.02730507 -0.026666667 0.019119216
-0.028867515 -0.026666667 0.016666669
-0.03021026 -0.026666667 0.014087278
-0.03132309 -0.026666667 0.011400674
-0.032197528 -0.026666667 0.0086273048
-0.032826927 -0.026666667 0.0057882769
-0.033206493 -0.026666667 0.0029051881
-0.033333335 -0.026666667 -2.9140927e-09
-0.033206493 -0.026666667 -0.0029051939
-0.032826927 -0.026666667 -0.0057882746
-0.032197528 -0.026666667 -0.0086273029
-0.03132309 -0.026666667 -0.011400673
-0.030210262 -0.026666667 -0.014087277
-0.028867515 -0.026666667 -0.016666666
-0.02730507 -0.026666667 -0.019119214
-0.025534818 -0.026666667 -0.021426253
-0.023570228 -0.026666667 -0.023570225
-0.021426251 -0.026666667 -0.02553482
-0.019119212 -0.026666667 -0.027305072
-0.016666664 -0.026666667 -0.028867517
-0.014087274 -0.026666667 -0.030210262
-0.01140067 -0.026666667 -0.03132309
-0.0086273002 -0.026666667 -0.032197531
-0.0057882713 -0.026666667 -0.032826927
-0.0029051907 -0.026666667 -0.033206493
3.9749604e-10 -0.026666667 -0.033333335
0.0029051914 -0.026666667 -0.033206493
0.0057882718 -0.026666667 -0.032826927
0.0086273011 -0.026666667 -0.032197528
0.011400671 -0.026666667 -0.03132309
0.014087274 -0.026666667 -0.030210262
0.016666664 -0.026666667 -0.028867517
0.019119212 -0.026666667 -0.027305072
0.021426251 -0.026666667 -0.025534818
0.023570223 -0.026666667 -0.02357023
0.025534812 -0.026666667 -0.02142626
0.027305067 -0.026666667 -0.01911922
0.028867513 -0.026666667 -0.016666673
0.030210258 -0.026666667 -0.014087282
0.031323086 -0.026666667 -0.011400679
0.032197531 -0.026666667 -0.0086272946
0.032826927 -0.026666667 -0.0057882662
0.033206493 -0.026666667 -0.0029051851
0.033333335 -0.026666667 5.8281855e-09
0.033333335 -0.023333333 0
0.033206493 -0.023333333 0.0029051914
0.032826927 -0.023333333 0.0057882727
0.032197528 -0.023333333 0.008627302
0.03132309 -0.023333333 0.011400672
0.03021026 -0.023333333 0.014087277
0.028867515 -0.023333333 0.016666668
0.02730507 -0.023333333 0.019119216
0.025534816 -0.023333333 0.021426253
0.023570227 -0.023333333 0.023570227
0.021426255 -0.023333333 0.025534816
0.019119216 -0.023333333 0.02730507
0.016666666 -0.023333333 0.028867517
0.014087276 -0.023333333 0.030210262
0.011400673 -0.023333333 0.03132309
0.0086273029 -0.023333333 0.032197528
0.0057882746 -0.023333333 0.032826927
0.0029051937 -0.023333333 0.033206493
-1.4570464e-09 -0.023333333 0.033333335
-0.0029051923 -0.023333333 0.033206493
-0.0057882736 -0.023333333 0.032826927
-0.008627302 -0.023333333 0.032197528
-0.011400672 -0.023333333 0.03132309
-0.014087278 -0.023333333 0.03021026
-0.016666669 -0.023333333 0.028867515
-0.019119216 -0.023333333 0.027305068
-0.021426255 -0.023333333 0.025534816
-0.023570227 -0.023333333 0.023570227
-0.025534816 -0.023333333 0.021426255
-0.02730507 -0.023333333 0.019119216
-0.028867515 -0.023333333 0.016666669
-0.03021026 -0.023333333 0.014087278
-0.03132309 -0.023333333 0.011400674
-0.032197528 -0.023333333 0.0086273048
-0.032826927 -0.023333333 0.0057882769
-0.033206493 -0.023333333 0.0029051881
-0.033333335 -0.023333333 -2.9140927e-09
-0.033206493 -0.023333333 -0.0029051939
-0.032826927 -0.023333333 -0.0057882746
-0.032197528 -0.023333333 -0.0086273029
-0.03132309 -0.023333333 -0.011400673
-0.030210262 -0.023333333 -0.014087277
-0.028867515 -0.023333333 -0.016666666
-0.02730507 -0.023333333 -0.019119214
-0.025534818 -0.023333333 -0.021426253
-0.023570228 -0.023333333 -0.023570225
-0.021426251 -0.023333333 -0.02553482
-0.019119212 -0.023333333 -0.027305072
-0.016666664 -0.023333333 -0.028867517
-0.014087274 -0.023333333 -0.030210262
-0.01140067 -0.023333333 -0.03132309
-0.0086273002 -0.023333333 -0.032197531
-0.0057882713 -0.023333333 -0.032826927
-0.0029051907 -0.023333333 -0.033206493
3.9749604e-10 -0.023333333 -0.033333335
0.0029051914 -0.023333333 -0.033206493
0.0057882718 -0.023333333 -0.032826927
0.0086273011 -0.023333333 -0.032197528
0.011400671 -0.023333333 -0.03132309
0.014087274 -0.023333333 -0.030210262
0.016666664 -0.023333333 -0.028867517
0.019119212 -0.023333333 -0.027305072
0.021426251 -0.023333333 -0.025534818
0.023570223 -0.023333333 -0.02357023
0.025534812 -0.023333333 -0.02142626
0.027305067 -0.023333333 -0.01911922
0.028867513 -0.023333333 -0.016666673
0.030210258 -0.023333333 -0.014087282
0.031323086 -0.023333333 -0.011400679
0.032197531 -0.023333333 -0.0086272946
0.032826927 -0.023333333 -0.0057882662
0.033206493 -0.023333333 -0.0029051851
0.033333335 -0.023333333 5.8281855e-09
0.033333335 -0.02 0
0.033206493 -0.02 0.0029051914
0.032826927 -0.02 0.0057882727
0.032197528 -0.02 0.008627302
0.03132309 -0.02 0.011400672
0.03021026 -0.02 0.014087277
0.028867515 -0.02 0.016666668
0.02730507 -0.02 0.019119216
0.025534816 -0.02 0.021426253
0.023570227 -0.02 0.023570227
0.021426255 -0.02 0.025534816
0.019119216 -0.02 0.02730507
0.016666666 -0.02 0.028867517
0.014087276 -0.02 0.030210262
0.011400673 -0.02 0.03132309
0.0086273029 -0.02 0.032197528
0.0057882746 -0.02 0.032826927
0.0029051937 -0.02 0.033206493
-1.4570464e-09 -0.02 0.033333335
-0.0029051923 -0.02 0.033206493
-0.0057882736 -0.02 0.032826927
-0.008627302 -0.02 0.032197528
-0.011400672 -0.02 0.03132309
-0.014087278 -0.02 0.03021026
-0.016666669 -0.02 0.028867515
-0.019119216 -0.02 0.027305068
-0.021426255 -0.02 0.025534816
-0.023570227 -0.02 0.023570227
-0.025534816 -0.02 0.021426255
-0.02730507 -0.02 0.019119216
-0.028867515 -0.02 0.016666669
-0.03021026 -0.02 0.014087278
-0.03132309 -0.02 0.011400674
-0.032197528 -0.02 0.0086273048
-0.032826927 -0.02 0.0057882769
-0.033206493 -0.02 0.0029051881
-0.033333335 -0.02 -2.9140927e-09
-0.033206493 -0.02 -0.0029051939
-0.032826927 -0.02 -0.0057882746
-0.032197528 -0.02 -0.0086273029
-0.03132309 -0.02 -0.011400673
-0.030210262 -0.02 -0.014087277
-0.028867515 -0.02 -0.016666666
-0.02730507 -0.02 -0.019119214
-0.025534818 -0.02 -0.021426253
-0.023570228 -0.02 -0.023570225
-0.021426251 -0.02 -0.02553482
-0.019119212 -0.02 -0.027305072
-0.016666664 -0.02 -0.028867517
-0.014087274 -0.02 -0.030210262
-0.01140067 -0.02 -0.03132309
-0.0086273002 -0.02 -0.032197531
-0.0057882713 -0.02 -0.032826927
-0.0029051907 -0.02 -0.033206493
3.9749604e-10 -0.02 -0.033333335
0.0029051914 -0.02 -0.033206493
0.0057882718 -0.02 -0.032826927
0.0086273011 -0.02 -0.032197528
0.011400671 -0.02 -0.03132309
0.014087274 -0.02 -0.030210262
0.016666664 -0.02 -0.028867517
0.019119212 -0.02 -0.027305072
0.021426251 -0.02 -0.025534818
0.023570223 -0.02 -0.02357023
0.025534812 -0.02 -0.02142626
0.027305067 -0.02 -0.01911922
0.028867513 -0.02 -0.016666673
0.030210258 -0.02 -0.014087282
0.031323086 -0.02 -0.011400679
0.032197531 -0.02 -0.0086272946
0.032826927 -0.02 -0.0057882662
0.033206493 -0.02 -0.0029051851
0.033333335 -0.02 5.8281855e-09
0.033333335 -0.016666666 0
0.033206493 -0.016666666 0.0029051914
0.032826927 -0.016666666 0.0057882727
0.032197528 -0.016666666 0.008627302
0.03132309 -0.016666666 0.011400672
0.03021026 -0.016666666 0.014087277
0.028867515 -0.016666666 0.016666668
0.02730507 -0.016666666 0.019119216
0.025534816 -0.016666666 0.021426253
0.023570227 -0.016666666 0.023570227
0.021426255 -0.016666666 0.025534816
0.019119216 -0.016666666 0.02730507
0.016666666 -0.016666666 0.028867517
0.014087276 -0.016666666 0.030210262
0.011400673 -0.016666666 0.03132309
0.0086273029 -0.016666666 0.032197528
0.0057882746 -0.016666666 0.032826927
0.0029051937 -0.016666666 0.033206493
-1.4570464e-09 -0.016666666 0.033333335
-0.0029051923 -0.016666666 0.033206493
-0.0057882736 -0.016666666 0.032826927
-0.008627302 -0.016666666 0.032197528
-0.011400672 -0.016666666 0.03132309
-0.014087278 -0.016666666 0.03021026
-0.016666669 -0.016666666 0.028867515
-0.019119216 -0.016666666 0.027305068
-0.021426255 -0.016666666 0.025534816
-0.023570227 -0.016666666 0.023570227
-0.025534816 -0.016666666 0.021426255
-0.02730507 -0.016666666 0.019119216
-0.028867515 -0.016666666 0.016666669
-0.03021026 -0.016666666 0.014087278
-0.03132309 -0.016666666 0.011400674
-0.032197528 -0.016666666 0.0086273048
-0.032826927 -0.016666666 0.0057882769
-0.033206493 -0.016666666 0.0029051881
-0.033333335 -0.016666666 -2.9140927e-09
-0.033206493 -0.016666666 -0.0029051939
-0.032826927 -0.016666666 -0.0057882746
-0.032197528 -0.016666666 -0.0086273029
-0.03132309 -0.016666666 -0.011400673
-0.030210262 -0.016666666 -0.014087277
-0.028867515 -0.016666666 -0.016666666
-0.02730507 -0.016666666 -0.019119214
-0.025534818 -0.016666666 -0.021426253
-0.023570228 -0.016666666 -0.023570225
-0.021426251 -0.016666666 -0.02553482
-0.019119212 -0.016666666 -0.027305072
-0.016666664 -0.016666666 -0.028867517
-0.014087274 -0.016666666 -0.030210262
-0.01140067 -0.016666666 -0.03132309
-0.0086273002 -0.016666666 -0.032197531
-0.0057882713 -0.016666666 -0.032826927
-0.0029051907 -0.016666666 -0.033206493
3.9749604e-10 -0.016666666 -0.033333335
0.0029051914 -0.016666666 -0.033206493
0.0057882718 -0.016666666 -0.032826927
0.0086273011 -0.016666666 -0.032197528
0.011400671 -0.016666666 -0.03132309
0.014087274 -0.016666666 -0.030210262
0.016666664 -0.016666666 -0.028867517
0.019119212 -0.016666666 -0.027305072
0.021426251 -0.016666666 -0.025534818
0.023570223 -0.016666666 -0.02357023
0.025534812 -0.016666666 -0.02142626
0.027305067 -0.016666666 -0.01911922
0.028867513 -0.016666666 -0.016666673
0.030210258 -0.016666666 -0.014087282
0.031323086 -0.016666666 -0.011400679
0.032197531 -0.016666666 -0.0086272946
0.032826927 -0.016666666 -0.0057882662
0.033206493 -0.016666666 -0.0029051851
0.033333335 -0.016666666 5.8281855e-09
0.033333335 -0.013333332 0
0.033206493 -0.013333332 0.0029051914
0.032826927 -0.013333332 0.0057882727
0.032197528 -0.013333332 0.008627302
0.03132309 -0.013333332 0.011400672
0.03021026 -0.013333332 0.014087277
0.028867515 -0.013333332 0.016666668
0.02730507 -0.013333332 0.019119216
0.025534816 -0.013333332 0.021426253
0.023570227 -0.013333332 0.023570227
0.021426255 -0.013333332 0.025534816
0.019119216 -0.013333332 0.02730507
0.016666666 -0.013333332 0.028867517
0.014087276 -0.013333332 0.030210262
0.011400673 -0.013333332 0.03132309
0.0086273029 -0.013333332 0.032197528
0.0057882746 -0.013333332 0.032826927
0.0029051937 -0.013333332 0.033206493
-1.4570464e-09 -0.013333332 0.033333335
-0.0029051923 -0.013333332 0.033206493
-0.0057882736 -0.013333332 0.032826927
-0.008627302 -0.013333332 0.032197528
-0.011400672 -0.013333332 0.03132309
-0.014087278 -0.013333332 0.03021026
-0.016666669 -0.013333332 0.028867515
-0.019119216 -0.013333332 0.027305068
-0.021426255 -0.013333332 0.025534816
-0.023570227 -0.013333332 0.023570227
-0.025534816 -0.013333332 0.021426255
-0.02730507 -0.013333332 0.019119216
-0.028867515 -0.013333332 0.016666669
-0.03021026 -0.013333332 0.014087278
-0.03132309 -0.013333332 0.011400674
-0.032197528 -0.013333332 0.0086273048
-0.032826927 -0.013333332 0.0057882769
-0.033206493 -0.013333332 0.0029051881
-0.033333335 -0.013333332 -2.9140927e-09
-0.033206493 -0.013333332 -0.0029051939
-0.032826927 -0.013333332 -0.0057882746
-0.032197528 -0.013333332 -0.0086273029
-0.03132309 -0.013333332 -0.011400673
-0.030210262 -0.013333332 -0.014087277
-0.028867515 -0.013333332 -0.016666666
-0.02730507 -0.013333332 -0.019119214
-0.025534818 -0.013333332 -0.021426253
-0.023570228 -0.013333332 -0.023570225
-0.021426251 -0.013333332 -0.02553482
-0.019119212 -0.013333332 -0.027305072
-0.016666664 -0.013333332 -0.028867517
-0.014087274 -0.013333332 -0.030210262
-0.01140067 -0.013333332 -0.03132309
-0.0086273002 -0.013333332 -0.032197531
-0.0057882713 -0.013333332 -0.032826927
-0.0029051907 -0.013333332 -0.033206493
3.9749604e-10 -0.013333332 -0.033333335
0.0029051914 -0.013333332 -0.033206493
0.0057882718 -0.013333332 -0.032826927
0.0086273011 -0.013333332 -0.032197528
0.011400671 -0.013333332 -0.03132309
0.014087274 -0.013333332 -0.030210262
0.016666664 -0.013333332 -0.028867517
0.019119212 -0.013333332 -0.027305072
0.021426251 -0.013333332 -0.025534818
0.023570223 -0.013333332 -0.02357023
0.025534812 -0.013333332 -0.02142626
0.027305067 -0.013333332 -0.01911922
0.028867513 -0.013333332 -0.016666673
0.030210258 -0.013333332 -0.014087282
0.031323086 -0.013333332 -0.011400679
0.032197531 -0.013333332 -0.0086272946
0.032826927 -0.013333332 -0.0057882662
0.033206493 -0.013333332 -0.0029051851
0.033333335 -0.013333332 5.8281855e-09
0.033333335 -0.0099999979 0
0.033206493 -0.0099999979 0.0029051914
0.032826927 -0.0099999979 0.0057882727
0.032197528 -0.0099999979 0.008627302
0.03132309 -0.0099999979 0.011400672
0.03021026 -0.0099999979 0.014087277
0.028867515 -0.0099999979 0.016666668
0.02730507 -0.0099999979 0.019119216
0.025534816 -0.0099999979 0.021426253
0.023570227 -0.0099999979 0.023570227
0.021426255 -0.0099999979 0.025534816
0.019119216 -0.0099999979 0.02730507
0.016666666 -0.0099999979 0.028867517
0.014087276 -0.0099999979 0.030210262
0.011400673 -0.0099999979 0.03132309
0.0086273029 -0.0099999979 0.032197528
0.0057882746 -0.0099999979 0.032826927
0.0029051937 -0.0099999979 0.033206493
-1.4570464e-09 -0.0099999979 0.033333335
-0.0029051923 -0.0099999979 0.033206493
-0.0057882736 -0.0099999979 0.032826927
-0.008627302 -0.0099999979 0.032197528
-0.011400672 -0.0099999979 0.03132309
-0.014087278 -0.0099999979 0.03021026
-0.016666669 -0.0099999979 0.028867515
-0.019119216 -0.0099999979 0.027305068
-0.021426255 -0.0099999979 0.025534816
-0.023570227 -0.0099999979 0.023570227
-0.025534816 -0.0099999979 0.021426255
-0.02730507 -0.0099999979 0.019119216
-0.028867515 -0.0099999979 0.016666669
-0.03021026 -0.0099999979 0.014087278
-0.03132309 -0.0099999979 0.011400674
-0.032197528 -0.0099999979 0.0086273048
-0.032826927 -0.0099999979 0.0057882769
-0.033206493 -0.0099999979 0.0029051881
-0.033333335 -0.0099999979 -2.9140927e-09
-0.033206493 -0.0099999979 -0.0029051939
-0.032826927 -0.0099999979 -0.0057882746
-0.032197528 -0.0099999979 -0.0086273029
-0.03132309 -0.0099999979 -0.011400673
-0.030210262 -0.0099999979 -0.014087277
-0.028867515 -0.0099999979 -0.016666666
-0.02730507 -0.0099999979 -0.019119214
